#   1  FUR   LHZ   GR    2008 133:05:17:48.640    10.000    8460
#   2  FUR   RAD   GR    2008 133:05:17:48.640    10.000    8460
#   3  FUR   TRA   GR    2008 133:05:17:48.640    10.000    8460
   0.3889412E+02	  -0.6078373E+02	   0.6468806E+02
   0.3052943E+02	  -0.1542283E+03	   0.7929150E+02
   0.1640944E+02	  -0.2088617E+03	   0.7780509E+02
  -0.1010367E+01	  -0.2181458E+03	   0.5985225E+02
  -0.1714672E+02	  -0.1876392E+03	   0.2910151E+02
  -0.2686254E+02	  -0.1323792E+03	  -0.7992846E+01
  -0.2647312E+02	  -0.7157136E+02	  -0.4404135E+02
  -0.1534505E+02	  -0.2245043E+02	  -0.7251189E+02
   0.3646667E+01	   0.4637057E+01	  -0.8897084E+02
   0.2505699E+02	   0.8339983E+01	  -0.9159840E+02
   0.4287037E+02	  -0.4843561E+01	  -0.8109206E+02
   0.5277503E+02	  -0.2410951E+02	  -0.6020259E+02
   0.5373090E+02	  -0.3858501E+02	  -0.3306652E+02
   0.4814483E+02	  -0.4065579E+02	  -0.4417703E+01
   0.4055721E+02	  -0.2745695E+02	   0.2137182E+02
   0.3537665E+02	  -0.5643688E+00	   0.4136671E+02
   0.3469231E+02	   0.3541554E+02	   0.5497452E+02
   0.3720013E+02	   0.7448268E+02	   0.6426506E+02
   0.3874020E+02	   0.1104584E+03	   0.7316065E+02
   0.3415931E+02	   0.1376568E+03	   0.8543600E+02
   0.1969156E+02	   0.1513138E+03	   0.1022195E+03
  -0.5218320E+01	   0.1481296E+03	   0.1201470E+03
  -0.3740287E+02	   0.1270596E+03	   0.1312884E+03
  -0.7092413E+02	   0.9014201E+02	   0.1253767E+03
  -0.9906087E+02	   0.4278906E+02	   0.9386013E+02
  -0.1164814E+03	  -0.6958965E+01	   0.3424184E+02
  -0.1207130E+03	  -0.5032200E+02	  -0.4719064E+02
  -0.1123512E+03	  -0.8029134E+02	  -0.1356689E+03
  -0.9413267E+02	  -0.9380859E+02	  -0.2115728E+03
  -0.6950945E+02	  -0.9260044E+02	  -0.2562411E+03
  -0.4149708E+02	  -0.8211821E+02	  -0.2579188E+03
  -0.1231410E+02	  -0.6897427E+02	  -0.2156850E+03
   0.1618813E+02	  -0.5806188E+02	  -0.1398829E+03
   0.4178822E+02	  -0.5074696E+02	  -0.4891425E+02
   0.6154753E+02	  -0.4498970E+02	   0.3638171E+02
   0.7225056E+02	  -0.3726424E+02	   0.9871044E+02
   0.7160000E+02	  -0.2519975E+02	   0.1286280E+03
   0.5958556E+02	  -0.9502270E+01	   0.1259513E+03
   0.3927802E+02	   0.5949862E+01	   0.9827505E+02
   0.1650976E+02	   0.1595575E+02	   0.5763029E+02
  -0.1658664E+01	   0.1681904E+02	   0.1670590E+02
  -0.9191453E+01	   0.8642649E+01	  -0.1418908E+02
  -0.3221930E+01	  -0.4255841E+01	  -0.2882644E+02
   0.1475033E+02	  -0.1514138E+02	  -0.2549620E+02
   0.3912270E+02	  -0.1802633E+02	  -0.6595654E+01
   0.6190604E+02	  -0.1062539E+02	   0.2224909E+02
   0.7530856E+02	   0.4446914E+01	   0.5337058E+02
   0.7423376E+02	   0.2085949E+02	   0.7853046E+02
   0.5776955E+02	   0.3151782E+02	   0.9066858E+02
   0.2925032E+02	   0.3184380E+02	   0.8566462E+02
  -0.5042534E+01	   0.2183520E+02	   0.6358569E+02
  -0.3794056E+02	   0.6015552E+01	   0.2883997E+02
  -0.6344291E+02	  -0.8584393E+01	  -0.1106377E+02
  -0.7814690E+02	  -0.1541341E+02	  -0.4772708E+02
  -0.8168307E+02	  -0.1091604E+02	  -0.7405870E+02
  -0.7615549E+02	   0.4521830E+01	  -0.8564629E+02
  -0.6493111E+02	   0.2739701E+02	  -0.8101517E+02
  -0.5130074E+02	   0.5298162E+02	  -0.6127364E+02
  -0.3748588E+02	   0.7708688E+02	  -0.2964279E+02
  -0.2427568E+02	   0.9677630E+02	   0.8816623E+01
  -0.1130839E+02	   0.1098743E+03	   0.4743336E+02
   0.2235921E+01	   0.1139273E+03	   0.7857113E+02
   0.1686592E+02	   0.1057736E+03	   0.9507530E+02
   0.3221942E+02	   0.8241912E+02	   0.9231049E+02
   0.4691783E+02	   0.4292384E+02	   0.7005716E+02
   0.5886863E+02	  -0.9740324E+01	   0.3330363E+02
   0.6586645E+02	  -0.6811565E+02	  -0.8716831E+01
   0.6621047E+02	  -0.1216744E+03	  -0.4521963E+02
   0.5914099E+02	  -0.1598848E+03	  -0.6753191E+02
   0.4499982E+02	  -0.1757139E+03	  -0.7226585E+02
   0.2510526E+02	  -0.1680088E+03	  -0.6251802E+02
   0.1469548E+01	  -0.1416649E+03	  -0.4647844E+02
  -0.2346793E+02	  -0.1055620E+03	  -0.3386895E+02
  -0.4697947E+02	  -0.6922173E+02	  -0.3164247E+02
  -0.6605720E+02	  -0.3970229E+02	  -0.4080844E+02
  -0.7749850E+02	  -0.1998899E+02	  -0.5588564E+02
  -0.7834458E+02	  -0.9266973E+01	  -0.6727417E+02
  -0.6670419E+02	  -0.4454760E+01	  -0.6550198E+02
  -0.4276669E+02	  -0.2000412E+01	  -0.4541299E+02
  -0.9566766E+01	   0.9627606E+00	  -0.8510323E+01
   0.2699452E+02	   0.6415740E+01	   0.3744757E+02
   0.5918926E+02	   0.1583186E+02	   0.8128604E+02
   0.7942197E+02	   0.3048507E+02	   0.1123166E+03
   0.8254523E+02	   0.5120892E+02	   0.1236046E+03
   0.6770775E+02	   0.7758098E+02	   0.1134517E+03
   0.3896386E+02	   0.1070682E+03	   0.8487469E+02
   0.4255453E+01	   0.1348300E+03	   0.4380954E+02
  -0.2698247E+02	   0.1546816E+03	  -0.2810096E+01
  -0.4676408E+02	   0.1609766E+03	  -0.4832853E+02
  -0.5089986E+02	   0.1505756E+03	  -0.8685314E+02
  -0.3987070E+02	   0.1240216E+03	  -0.1134084E+03
  -0.1808067E+02	   0.8536278E+02	  -0.1243526E+03
   0.8021480E+01	   0.4068761E+02	  -0.1180690E+03
   0.3211259E+02	  -0.3817324E+01	  -0.9551806E+02
   0.4958963E+02	  -0.4339603E+02	  -0.6018695E+02
   0.5810351E+02	  -0.7524641E+02	  -0.1728466E+02
   0.5713129E+02	  -0.9810094E+02	   0.2755089E+02
   0.4709207E+02	  -0.1114185E+03	   0.6948663E+02
   0.2862676E+02	  -0.1148331E+03	   0.1050708E+03
   0.2482626E+01	  -0.1083206E+03	   0.1319598E+03
  -0.3001189E+02	  -0.9289780E+02	   0.1481351E+03
  -0.6626307E+02	  -0.7120737E+02	   0.1512585E+03
  -0.1020288E+03	  -0.4748512E+02	   0.1387320E+03
  -0.1316845E+03	  -0.2674900E+02	   0.1087523E+03
  -0.1491527E+03	  -0.1343214E+02	   0.6204358E+02
  -0.1492600E+03	  -0.1001101E+02	   0.3420716E+01
  -0.1291550E+03	  -0.1613079E+02	  -0.5787850E+02
  -0.8937315E+02	  -0.2863951E+02	  -0.1098785E+03
  -0.3424462E+02	  -0.4264185E+02	  -0.1413033E+03
   0.2851645E+02	  -0.5313094E+02	  -0.1455425E+03
   0.8906498E+02	  -0.5657948E+02	  -0.1234340E+03
   0.1373372E+03	  -0.5189767E+02	  -0.8347876E+02
   0.1653079E+03	  -0.4043814E+02	  -0.3904943E+02
   0.1690469E+03	  -0.2515566E+02	  -0.3468482E+01
   0.1498825E+03	  -0.9323324E+01	   0.1504705E+02
   0.1141907E+03	   0.4718456E+01	   0.1640380E+02
   0.7175744E+02	   0.1636508E+02	   0.8265757E+01
   0.3309720E+02	   0.2682036E+02	   0.2386498E+01
   0.6496722E+01	   0.3842424E+02	   0.9143028E+01
  -0.4282419E+01	   0.5350521E+02	   0.3255869E+02
  -0.8619547E+00	   0.7321060E+02	   0.6802313E+02
   0.1066244E+02	   0.9672634E+02	   0.1037013E+03
   0.2204638E+02	   0.1211314E+03	   0.1250409E+03
   0.2576301E+02	   0.1419103E+03	   0.1204610E+03
   0.1736476E+02	   0.1539838E+03	   0.8595214E+02
  -0.3417576E+01	   0.1530473E+03	   0.2676172E+02
  -0.3303624E+02	   0.1368722E+03	  -0.4434882E+02
  -0.6561594E+02	   0.1061180E+03	  -0.1114544E+03
  -0.9478943E+02	   0.6436510E+02	  -0.1605847E+03
  -0.1152207E+03	   0.1732811E+02	  -0.1837159E+03
  -0.1235527E+03	  -0.2850415E+02	  -0.1802812E+03
  -0.1187720E+03	  -0.6737823E+02	  -0.1559849E+03
  -0.1021100E+03	  -0.9549187E+02	  -0.1197326E+03
  -0.7664845E+02	  -0.1116128E+03	  -0.8013763E+02
  -0.4675688E+02	  -0.1169694E+03	  -0.4294332E+02
  -0.1733536E+02	  -0.1144907E+03	  -0.1015597E+02
   0.7131189E+01	  -0.1076787E+03	   0.1919122E+02
   0.2353193E+02	  -0.9943388E+02	   0.4730270E+02
   0.3088145E+02	  -0.9112020E+02	   0.7576115E+02
   0.3060547E+02	  -0.8226159E+02	   0.1043441E+03
   0.2611407E+02	  -0.7103626E+02	   0.1308327E+03
   0.2172811E+02	  -0.5543174E+02	   0.1516782E+03
   0.2124016E+02	  -0.3466230E+02	   0.1631721E+03
   0.2663155E+02	  -0.1018850E+02	   0.1626009E+03
   0.3748233E+02	   0.1414121E+02	   0.1490216E+03
   0.5122789E+02	   0.3308001E+02	   0.1235683E+03
   0.6417387E+02	   0.4191698E+02	   0.8925932E+02
   0.7279744E+02	   0.3858271E+02	   0.5042890E+02
   0.7486842E+02	   0.2513511E+02	   0.1195455E+02
   0.6999232E+02	   0.7761987E+01	  -0.2156872E+02
   0.5945183E+02	  -0.4831281E+01	  -0.4669199E+02
   0.4554040E+02	  -0.4252351E+01	  -0.6181957E+02
   0.3069742E+02	   0.1452279E+02	  -0.6759383E+02
   0.1678671E+02	   0.5093793E+02	  -0.6677721E+02
   0.4787122E+01	   0.9831236E+02	  -0.6357213E+02
  -0.5111830E+01	   0.1451835E+03	  -0.6244855E+02
  -0.1325781E+02	   0.1781897E+03	  -0.6673885E+02
  -0.2031363E+02	   0.1856810E+03	  -0.7740522E+02
  -0.2716971E+02	   0.1610735E+03	  -0.9244579E+02
  -0.3486976E+02	   0.1050203E+03	  -0.1072156E+03
  -0.4430360E+02	   0.2571941E+02	  -0.1157085E+03
  -0.5558657E+02	  -0.6282768E+02	  -0.1125223E+03
  -0.6738251E+02	  -0.1441695E+03	  -0.9491699E+02
  -0.7664708E+02	  -0.2034172E+03	  -0.6419637E+02
  -0.7915575E+02	  -0.2308172E+03	  -0.2582355E+02
  -0.7090950E+02	  -0.2238435E+03	   0.1197573E+02
  -0.5001921E+02	  -0.1872634E+03	   0.4079499E+02
  -0.1826200E+02	  -0.1313179E+03	   0.5497747E+02
   0.1850702E+02	  -0.6870701E+02	   0.5378244E+02
   0.5145147E+02	  -0.1133485E+02	   0.4182510E+02
   0.7122498E+02	   0.3222124E+02	   0.2743934E+02
   0.7107588E+02	   0.5791008E+02	   0.1946264E+02
   0.4941903E+02	   0.6591801E+02	   0.2364934E+02
   0.1082891E+02	   0.5936937E+02	   0.4014125E+02
  -0.3501153E+02	   0.4273644E+02	   0.6306628E+02
  -0.7612284E+02	   0.2059597E+02	   0.8258191E+02
  -0.1018315E+03	  -0.2869475E+01	   0.8867616E+02
  -0.1058162E+03	  -0.2373879E+02	   0.7530630E+02
  -0.8753934E+02	  -0.3811304E+02	   0.4322870E+02
  -0.5173737E+02	  -0.4219825E+02	   0.2649961E+00
  -0.6402187E+01	  -0.3291949E+02	  -0.4119778E+02
   0.3969928E+02	  -0.8944473E+01	  -0.6855776E+02
   0.7908273E+02	   0.2822704E+02	  -0.7356109E+02
   0.1067199E+03	   0.7354321E+02	  -0.5524567E+02
   0.1202435E+03	   0.1185993E+03	  -0.2012837E+02
   0.1196763E+03	   0.1530553E+03	   0.2041996E+02
   0.1070100E+03	   0.1671637E+03	   0.5448371E+02
   0.8591152E+02	   0.1547338E+03	   0.7383671E+02
   0.6132308E+02	   0.1155347E+03	   0.7647159E+02
   0.3874255E+02	   0.5617916E+02	   0.6654636E+02
   0.2300771E+02	  -0.1102830E+02	   0.5203207E+02
   0.1679186E+02	  -0.7108587E+02	   0.4115743E+02
   0.1935911E+02	  -0.1103296E+03	   0.3910677E+02
   0.2633591E+02	  -0.1202684E+03	   0.4617849E+02
   0.3082929E+02	  -0.1000249E+03	   0.5788200E+02
   0.2570982E+02	  -0.5651091E+02	   0.6672868E+02
   0.6325130E+01	  -0.2271903E+01	   0.6489567E+02
  -0.2742622E+02	   0.4828355E+02	   0.4680430E+02
  -0.7053295E+02	   0.8302590E+02	   0.1086666E+02
  -0.1141135E+03	   0.9527853E+02	  -0.3999269E+02
  -0.1480654E+03	   0.8501402E+02	  -0.9903877E+02
  -0.1641924E+03	   0.5783113E+02	  -0.1573106E+03
  -0.1587332E+03	   0.2220152E+02	  -0.2055370E+03
  -0.1334404E+03	  -0.1389850E+02	  -0.2358915E+03
  -0.9483594E+02	  -0.4551173E+02	  -0.2432621E+03
  -0.5196664E+02	  -0.7149107E+02	  -0.2259463E+03
  -0.1350731E+02	  -0.9346365E+02	  -0.1857320E+03
   0.1474535E+02	  -0.1136425E+03	  -0.1274120E+03
   0.3118119E+02	  -0.1325357E+03	  -0.5777280E+02
   0.3814621E+02	  -0.1475891E+03	   0.1573961E+02
   0.4042350E+02	  -0.1534058E+03	   0.8633572E+02
   0.4306403E+02	  -0.1435590E+03	   0.1487835E+03
   0.4940018E+02	  -0.1133353E+03	   0.1996560E+03
   0.5988268E+02	  -0.6225755E+02	   0.2368604E+03
   0.7209639E+02	   0.4713168E+01	   0.2587569E+03
   0.8190272E+02	   0.7783873E+02	   0.2634660E+03
   0.8522918E+02	   0.1449545E+03	   0.2488250E+03
   0.7979214E+02	   0.1946135E+03	   0.2131059E+03
   0.6606322E+02	   0.2189419E+03	   0.1562182E+03
   0.4710174E+02	   0.2152833E+03	   0.8088273E+02
   0.2736634E+02	   0.1861842E+03	  -0.6804006E+01
   0.1107986E+02	   0.1379253E+03	  -0.9777524E+02
   0.8707716E+00	   0.7840386E+02	  -0.1813374E+03
  -0.2845291E+01	   0.1528830E+02	  -0.2470672E+03
  -0.1652492E+01	  -0.4495024E+02	  -0.2867083E+03
   0.1684820E+01	  -0.9706512E+02	  -0.2956142E+03
   0.4181736E+01	  -0.1365582E+03	  -0.2733681E+03
   0.3395736E+01	  -0.1593822E+03	  -0.2235119E+03
  -0.2172565E+01	  -0.1623892E+03	  -0.1526120E+03
  -0.1302027E+02	  -0.1444966E+03	  -0.6899407E+02
  -0.2875342E+02	  -0.1079502E+03	   0.1841300E+02
  -0.4814917E+02	  -0.5886958E+02	   0.1008446E+03
  -0.6909154E+02	  -0.6503886E+01	   0.1701288E+03
  -0.8847883E+02	   0.3882906E+02	   0.2190549E+03
  -0.1023481E+03	   0.6855572E+02	   0.2420258E+03
  -0.1064504E+03	   0.7838961E+02	   0.2361199E+03
  -0.9733313E+02	   0.6959861E+02	   0.2023157E+03
  -0.7364585E+02	   0.4846624E+02	   0.1462733E+03
  -0.3713729E+02	   0.2408257E+02	   0.7800107E+02
   0.7153073E+01	   0.5254716E+01	   0.1006252E+02
   0.5176322E+02	  -0.2409069E+01	  -0.4537133E+02
   0.8855172E+02	   0.1712175E+01	  -0.7973207E+02
   0.1108362E+03	   0.1324429E+02	  -0.9036384E+02
   0.1152690E+03	   0.2465672E+02	  -0.8104219E+02
   0.1028426E+03	   0.2829635E+02	  -0.6043657E+02
   0.7862499E+02	   0.1945728E+02	  -0.3905556E+02
   0.5023035E+02	  -0.1709603E+01	  -0.2575031E+02
   0.2545516E+02	  -0.3013052E+02	  -0.2499714E+02
   0.9826080E+01	  -0.5757609E+02	  -0.3586512E+02
   0.4878511E+01	  -0.7561471E+02	  -0.5295009E+02
   0.7800992E+01	  -0.7869122E+02	  -0.6876340E+02
   0.1257657E+02	  -0.6617203E+02	  -0.7655220E+02
   0.1222932E+02	  -0.4250677E+02	  -0.7250123E+02
   0.1424848E+01	  -0.1540991E+02	  -0.5660614E+02
  -0.2146573E+02	   0.7178770E+01	  -0.3208207E+02
  -0.5354544E+02	   0.2010244E+02	  -0.3821891E+01
  -0.8806887E+02	   0.2277135E+02	   0.2331783E+02
  -0.1163586E+03	   0.1904107E+02	   0.4572853E+02
  -0.1303178E+03	   0.1525481E+02	   0.6148509E+02
  -0.1247109E+03	   0.1735093E+02	   0.7015313E+02
  -0.9852747E+02	   0.2834749E+02	   0.7230220E+02
  -0.5513462E+02	   0.4732473E+02	   0.6905329E+02
  -0.1366787E+01	   0.7023199E+02	   0.6184738E+02
   0.5399912E+02	   0.9197558E+02	   0.5229260E+02
   0.1019063E+03	   0.1085935E+03	   0.4186799E+02
   0.1345134E+03	   0.1184069E+03	   0.3147232E+02
   0.1464086E+03	   0.1215677E+03	   0.2103403E+02
   0.1354634E+03	   0.1182910E+03	   0.9532210E+01
   0.1032556E+03	   0.1069143E+03	  -0.4363614E+01
   0.5501271E+02	   0.8314348E+02	  -0.2126233E+02
  -0.1041878E+01	   0.4129711E+02	  -0.4014678E+02
  -0.5501056E+02	  -0.2265258E+02	  -0.5808197E+02
  -0.9719076E+02	  -0.1074131E+03	  -0.7079002E+02
  -0.1201286E+03	  -0.2037922E+03	  -0.7398888E+02
  -0.1203210E+03	  -0.2947452E+03	  -0.6498010E+02
  -0.9904392E+02	  -0.3586736E+03	  -0.4386275E+02
  -0.6197842E+02	  -0.3752740E+03	  -0.1385786E+02
  -0.1768943E+02	  -0.3320860E+03	   0.1944186E+02
   0.2459388E+02	  -0.2294431E+03	   0.4959955E+02
   0.5722089E+02	  -0.8197588E+02	   0.7100064E+02
   0.7571664E+02	   0.8408743E+02	   0.8007328E+02
   0.7932041E+02	   0.2371821E+03	   0.7572575E+02
   0.7046548E+02	   0.3483724E+03	   0.5904988E+02
   0.5355495E+02	   0.3986132E+03	   0.3265591E+02
   0.3356682E+02	   0.3830978E+03	  -0.1719563E-01
   0.1490809E+02	   0.3115081E+03	  -0.3518108E+02
   0.6930622E+00	   0.2043356E+03	  -0.6896387E+02
  -0.7560302E+01	   0.8661570E+02	  -0.9759784E+02
  -0.9893091E+01	  -0.1884385E+02	  -0.1176375E+03
  -0.7608068E+01	  -0.9665183E+02	  -0.1262838E+03
  -0.2779509E+01	  -0.1410461E+03	  -0.1217925E+03
   0.2307488E+01	  -0.1548962E+03	  -0.1039031E+03
   0.5656893E+01	  -0.1464244E+03	  -0.7415558E+02
   0.5895679E+01	  -0.1252177E+03	  -0.3592546E+02
   0.2387563E+01	  -0.9905086E+02	   0.5885594E+01
  -0.4821557E+01	  -0.7252077E+02	   0.4554131E+02
  -0.1515091E+02	  -0.4752274E+02	   0.7754239E+02
  -0.2763080E+02	  -0.2477699E+02	   0.9792992E+02
  -0.4098002E+02	  -0.5285835E+01	   0.1053955E+03
  -0.5363351E+02	   0.9155420E+01	   0.1016136E+03
  -0.6379546E+02	   0.1658810E+02	   0.9053856E+02
  -0.6960470E+02	   0.1614820E+02	   0.7687376E+02
  -0.6950394E+02	   0.9099841E+01	   0.6427537E+02
  -0.6273914E+02	  -0.1091066E+01	   0.5406916E+02
  -0.4973461E+02	  -0.9822029E+01	   0.4509420E+02
  -0.3212690E+02	  -0.1320494E+02	   0.3479658E+02
  -0.1236191E+02	  -0.9850418E+01	   0.2111790E+02
   0.7092209E+01	  -0.1671713E+01	   0.4224074E+01
   0.2465188E+02	   0.6750904E+01	  -0.1287496E+02
   0.4027201E+02	   0.1009700E+02	  -0.2525550E+02
   0.5546110E+02	   0.4767776E+01	  -0.2826326E+02
   0.7248132E+02	  -0.9166526E+01	  -0.2001130E+02
   0.9295607E+02	  -0.2742935E+02	  -0.2944207E+01
   0.1164515E+03	  -0.4275316E+02	   0.1642550E+02
   0.1396780E+03	  -0.4749287E+02	   0.2964524E+02
   0.1568023E+03	  -0.3665770E+02	   0.2952959E+02
   0.1609388E+03	  -0.1012830E+02	   0.1314462E+02
   0.1463668E+03	   0.2681640E+02	  -0.1676084E+02
   0.1107059E+03	   0.6488455E+02	  -0.5253073E+02
   0.5623592E+02	   0.9359475E+02	  -0.8426142E+02
  -0.1020418E+02	   0.1045751E+03	  -0.1032524E+03
  -0.7878606E+02	   0.9433000E+02	  -0.1048243E+03
  -0.1392037E+03	   0.6563339E+02	  -0.8947434E+02
  -0.1832462E+03	   0.2701502E+02	  -0.6214425E+02
  -0.2065831E+03	  -0.9603564E+01	  -0.3009735E+02
  -0.2092779E+03	  -0.3250771E+02	  -0.4260387E+00
  -0.1950096E+03	  -0.3400689E+02	   0.2185503E+02
  -0.1694364E+03	  -0.1323930E+02	   0.3461226E+02
  -0.1383495E+03	   0.2310182E+02	   0.3828143E+02
  -0.1062611E+03	   0.6251701E+02	   0.3489603E+02
  -0.7581699E+02	   0.9044318E+02	   0.2699591E+02
  -0.4798218E+02	   0.9483751E+02	   0.1684604E+02
  -0.2263168E+02	   0.7015081E+02	   0.6148050E+01
   0.8912706E+00	   0.1930722E+02	  -0.3862896E+01
   0.2349878E+02	  -0.4707566E+02	  -0.1216576E+02
   0.4632159E+02	  -0.1139647E+03	  -0.1773796E+02
   0.7063415E+02	  -0.1665351E+03	  -0.1948779E+02
   0.9747270E+02	  -0.1945212E+03	  -0.1642956E+02
   0.1268732E+03	  -0.1947979E+03	  -0.8041441E+01
   0.1570081E+03	  -0.1713677E+03	   0.5410713E+01
   0.1837482E+03	  -0.1329062E+03	   0.2277171E+02
   0.2011426E+03	  -0.8900842E+02	   0.4211930E+02
   0.2029668E+03	  -0.4673166E+02	   0.6102286E+02
   0.1849711E+03	  -0.8814585E+01	   0.7679552E+02
   0.1469475E+03	   0.2583252E+02	   0.8670867E+02
   0.9363231E+02	   0.5992420E+02	   0.8824033E+02
   0.3386929E+02	   0.9511928E+02	   0.7945519E+02
  -0.2180086E+02	   0.1302241E+03	   0.5952814E+02
  -0.6423918E+02	   0.1611261E+03	   0.2929181E+02
  -0.8832103E+02	   0.1823682E+03	  -0.8425071E+01
  -0.9415564E+02	   0.1894746E+03	  -0.4891582E+02
  -0.8656287E+02	   0.1808183E+03	  -0.8631824E+02
  -0.7311812E+02	   0.1581435E+03	  -0.1148763E+03
  -0.6157621E+02	   0.1255645E+03	  -0.1304141E+03
  -0.5759654E+02	   0.8759475E+02	  -0.1314861E+03
  -0.6347159E+02	   0.4729020E+02	  -0.1197258E+03
  -0.7805137E+02	   0.5403940E+01	  -0.9918063E+02
  -0.9759091E+02	  -0.3902273E+02	  -0.7481207E+02
  -0.1170056E+03	  -0.8698550E+02	  -0.5072215E+02
  -0.1310808E+03	  -0.1375989E+03	  -0.2881525E+02
  -0.1354211E+03	  -0.1868073E+03	  -0.8426338E+01
  -0.1271730E+03	  -0.2273627E+03	   0.1290128E+02
  -0.1055736E+03	  -0.2502722E+03	   0.3781026E+02
  -0.7226571E+02	  -0.2473410E+03	   0.6739301E+02
  -0.3118929E+02	  -0.2139223E+03	   0.1000554E+03
   0.1212359E+02	  -0.1509978E+03	   0.1315066E+03
   0.5182029E+02	  -0.6592509E+02	   0.1558704E+03
   0.8325488E+02	   0.2846222E+02	   0.1674509E+03
   0.1042395E+03	   0.1162651E+03	   0.1624879E+03
   0.1155154E+03	   0.1819369E+03	   0.1403076E+03
   0.1202248E+03	   0.2138654E+03	   0.1035312E+03
   0.1225786E+03	   0.2072070E+03	   0.5739211E+02
   0.1261867E+03	   0.1652815E+03	   0.8490417E+01
   0.1326102E+03	   0.9914997E+02	  -0.3663607E+02
   0.1406178E+03	   0.2531502E+02	  -0.7277480E+02
   0.1463932E+03	  -0.3803434E+02	  -0.9688024E+02
   0.1445986E+03	  -0.7538960E+02	  -0.1083815E+03
   0.1298900E+03	  -0.7783723E+02	  -0.1089427E+03
   0.9843307E+02	  -0.4543439E+02	  -0.1017367E+03
   0.4907542E+02	   0.1265199E+02	  -0.9041872E+02
  -0.1598539E+02	   0.8030797E+02	  -0.7812913E+02
  -0.9108672E+02	   0.1384315E+03	  -0.6682949E+02
  -0.1675655E+03	   0.1697149E+03	  -0.5711022E+02
  -0.2348734E+03	   0.1630393E+03	  -0.4843460E+02
  -0.2823008E+03	   0.1163480E+03	  -0.3961082E+02
  -0.3010789E+03	   0.3728538E+02	  -0.2927866E+02
  -0.2864103E+03	  -0.5854828E+02	  -0.1636705E+02
  -0.2388097E+03	  -0.1513212E+03	  -0.5092707E+00
  -0.1643022E+03	  -0.2218264E+03	   0.1760369E+02
  -0.7335558E+02	  -0.2562479E+03	   0.3602745E+02
   0.2121345E+02	  -0.2495186E+03	   0.5170661E+02
   0.1068092E+03	  -0.2062452E+03	   0.6106934E+02
   0.1734386E+03	  -0.1389168E+03	   0.6105723E+02
   0.2152688E+03	  -0.6399455E+02	   0.5039569E+02
   0.2310532E+03	   0.2880039E+01	   0.3060969E+02
   0.2234684E+03	   0.5104134E+02	   0.6223630E+01
   0.1977442E+03	   0.7704515E+02	  -0.1616898E+02
   0.1601018E+03	   0.8433499E+02	  -0.2981071E+02
   0.1164771E+03	   0.8060728E+02	  -0.3005164E+02
   0.7175687E+02	   0.7403820E+02	  -0.1615684E+02
   0.2951327E+02	   0.6996635E+02	   0.8092844E+01
  -0.7905694E+01	   0.6927855E+02	   0.3535629E+02
  -0.3910232E+02	   0.6900710E+02	   0.5701273E+02
  -0.6329770E+02	   0.6473346E+02	   0.6597296E+02
  -0.8005650E+02	   0.5357788E+02	   0.5899675E+02
  -0.8915119E+02	   0.3634225E+02	   0.3766008E+02
  -0.9057382E+02	   0.1781711E+02	   0.7697976E+01
  -0.8465045E+02	   0.5120452E+01	  -0.2295022E+02
  -0.7221734E+02	   0.4788648E+01	  -0.4661361E+02
  -0.5482253E+02	   0.1980726E+02	  -0.5801769E+02
  -0.3486356E+02	   0.4779645E+02	  -0.5545464E+02
  -0.1556251E+02	   0.8117117E+02	  -0.4079475E+02
  -0.6979490E+00	   0.1092985E+03	  -0.1853486E+02
   0.5989228E+01	   0.1218260E+03	   0.5614697E+01
   0.1705151E+01	   0.1119202E+03	   0.2614697E+02
  -0.1440592E+02	   0.7827414E+02	   0.3888572E+02
  -0.4054915E+02	   0.2527493E+02	   0.4168354E+02
  -0.7218171E+02	  -0.3851187E+02	   0.3467113E+02
  -0.1026567E+03	  -0.1027826E+03	   0.2011922E+02
  -0.1244700E+03	  -0.1579592E+03	   0.1919615E+01
  -0.1307662E+03	  -0.1969217E+03	  -0.1531564E+02
  -0.1167322E+03	  -0.2156831E+03	  -0.2738806E+02
  -0.8055981E+02	  -0.2132153E+03	  -0.3156215E+02
  -0.2381281E+02	  -0.1908741E+03	  -0.2718441E+02
   0.4874290E+02	  -0.1518087E+03	  -0.1569941E+02
   0.1297003E+03	  -0.1005284E+03	  -0.9266745E-01
   0.2098484E+03	  -0.4257234E+02	   0.1597415E+02
   0.2791758E+03	   0.1586803E+02	   0.2899241E+02
   0.3280361E+03	   0.6859104E+02	   0.3619734E+02
   0.3484594E+03	   0.1103488E+03	   0.3585122E+02
   0.3354884E+03	   0.1378843E+03	   0.2723254E+02
   0.2882385E+03	   0.1505990E+03	   0.1050557E+02
   0.2102980E+03	   0.1504141E+03	  -0.1329548E+02
   0.1092286E+03	   0.1408229E+03	  -0.4210520E+02
  -0.4814272E+01	   0.1255451E+03	  -0.7261953E+02
  -0.1209563E+03	   0.1073979E+03	  -0.1002472E+03
  -0.2293594E+03	   0.8780261E+02	  -0.1194587E+03
  -0.3222825E+03	   0.6701741E+02	  -0.1246801E+03
  -0.3941979E+03	   0.4483644E+02	  -0.1116832E+03
  -0.4411614E+03	   0.2123504E+02	  -0.7916179E+02
  -0.4599879E+03	  -0.3483018E+01	  -0.2986277E+02
  -0.4478288E+03	  -0.2908365E+02	   0.2933863E+02
  -0.4025385E+03	  -0.5592122E+02	   0.8873992E+02
  -0.3238379E+03	  -0.8497240E+02	   0.1382855E+03
  -0.2147844E+03	  -0.1170239E+03	   0.1704620E+03
  -0.8275928E+02	  -0.1512200E+03	   0.1824843E+03
   0.6069687E+02	  -0.1837199E+03	   0.1767560E+03
   0.2014195E+03	  -0.2073421E+03	   0.1593167E+03
   0.3251163E+03	  -0.2128037E+03	   0.1368135E+03
   0.4199978E+03	  -0.1915090E+03	   0.1132490E+03
   0.4786590E+03	  -0.1389640E+03	   0.8805405E+02
   0.4986765E+03	  -0.5744747E+02	   0.5655695E+02
   0.4819125E+03	   0.4327454E+02	   0.1276225E+02
   0.4330239E+03	   0.1477099E+03	  -0.4669986E+02
   0.3578884E+03	   0.2384296E+03	  -0.1192267E+03
   0.2625540E+03	   0.3005792E+03	  -0.1951613E+03
   0.1529474E+03	   0.3255036E+03	  -0.2597300E+03
   0.3520778E+02	   0.3122751E+03	  -0.2973978E+03
  -0.8375807E+02	   0.2667575E+03	  -0.2969955E+03
  -0.1960206E+03	   0.1988738E+03	  -0.2556556E+03
  -0.2930221E+03	   0.1194001E+03	  -0.1800296E+03
  -0.3666235E+03	   0.3748987E+02	  -0.8437144E+02
  -0.4104704E+03	  -0.4043080E+02	   0.1365804E+02
  -0.4212014E+03	  -0.1105110E+03	   0.9785036E+02
  -0.3990707E+03	  -0.1705939E+03	   0.1573102E+03
  -0.3478096E+03	  -0.2191935E+03	   0.1881776E+03
  -0.2738543E+03	  -0.2547271E+03	   0.1930738E+03
  -0.1851945E+03	  -0.2751488E+03	   0.1789495E+03
  -0.9016666E+02	  -0.2780283E+03	   0.1543186E+03
   0.3537406E+01	  -0.2610328E+03	   0.1268219E+03
   0.8948013E+02	  -0.2227826E+03	   0.1016718E+03
   0.1627166E+03	  -0.1639965E+03	   0.8104878E+02
   0.2197672E+03	  -0.8858640E+02	   0.6428312E+02
   0.2584073E+03	  -0.4093309E+01	   0.4863682E+02
   0.2774058E+03	   0.7905019E+02	   0.3048122E+02
   0.2763650E+03	   0.1495185E+03	   0.6640026E+01
   0.2557618E+03	   0.1978783E+03	  -0.2433724E+02
   0.2171621E+03	   0.2192267E+03	  -0.6125550E+02
   0.1634545E+03	   0.2146426E+03	  -0.1000449E+03
   0.9894793E+02	   0.1907451E+03	  -0.1345252E+03
   0.2921288E+02	   0.1573031E+03	  -0.1580364E+03
  -0.3940076E+02	   0.1238116E+03	  -0.1653439E+03
  -0.1005386E+03	   0.9641453E+02	  -0.1541211E+03
  -0.1487191E+03	   0.7637729E+02	  -0.1255050E+03
  -0.1800855E+03	   0.6061119E+02	  -0.8370029E+02
  -0.1928194E+03	   0.4378273E+02	  -0.3493404E+02
  -0.1871135E+03	   0.2092480E+02	   0.1389925E+02
  -0.1648280E+03	  -0.1043703E+02	   0.5663800E+02
  -0.1290157E+03	  -0.4927369E+02	   0.8899232E+02
  -0.8346790E+02	  -0.9132434E+02	   0.1091173E+03
  -0.3238454E+02	  -0.1303857E+03	   0.1174725E+03
   0.1981523E+02	  -0.1600643E+03	   0.1160152E+03
   0.6865516E+02	  -0.1753841E+03	   0.1070896E+03
   0.1098487E+03	  -0.1738087E+03	   0.9250052E+02
   0.1396694E+03	  -0.1556344E+03	   0.7311090E+02
   0.1553960E+03	  -0.1238613E+03	   0.4907330E+02
   0.1557655E+03	  -0.8358321E+02	   0.2058206E+02
   0.1412979E+03	  -0.4092119E+02	  -0.1120977E+02
   0.1143201E+03	  -0.1575366E+01	  -0.4355658E+02
   0.7856931E+02	   0.3069400E+02	  -0.7209380E+02
   0.3842055E+02	   0.5507931E+02	  -0.9163445E+02
  -0.2022591E+01	   0.7366906E+02	  -0.9767482E+02
  -0.3963940E+02	   0.9013542E+02	  -0.8798087E+02
  -0.7257288E+02	   0.1076014E+03	  -0.6367585E+02
  -0.1000471E+03	   0.1266486E+03	  -0.2941080E+02
  -0.1218333E+03	   0.1444267E+03	   0.7624865E+01
  -0.1376078E+03	   0.1552930E+03	   0.3957539E+02
  -0.1464762E+03	   0.1527977E+03	   0.6005510E+02
  -0.1468424E+03	   0.1322710E+03	   0.6584146E+02
  -0.1367356E+03	   0.9300050E+02	   0.5765545E+02
  -0.1145584E+03	   0.3914544E+02	   0.3971396E+02
  -0.8002766E+02	  -0.2096048E+02	   0.1832475E+02
  -0.3502185E+02	  -0.7685540E+02	  -0.3906452E-01
   0.1599048E+02	  -0.1186424E+03	  -0.1053881E+02
   0.6630372E+02	  -0.1394395E+03	  -0.1115325E+02
   0.1081931E+03	  -0.1369302E+03	  -0.2972140E+01
   0.1347498E+03	  -0.1136355E+03	   0.1043258E+02
   0.1417950E+03	  -0.7591434E+02	   0.2414967E+02
   0.1292486E+03	  -0.3216880E+02	   0.3320609E+02
   0.1013715E+03	   0.9093372E+01	   0.3377093E+02
   0.6569099E+02	   0.4090335E+02	   0.2408846E+02
   0.3090518E+02	   0.5887438E+02	   0.5043821E+01
   0.4450610E+01	   0.6155012E+02	  -0.1985626E+02
  -0.9484553E+01	   0.5017884E+02	  -0.4523381E+02
  -0.1081393E+02	   0.2799250E+02	  -0.6529539E+02
  -0.3066150E+01	  -0.8077455E+00	  -0.7554386E+02
   0.8122945E+01	  -0.3190911E+02	  -0.7400546E+02
   0.1696276E+02	  -0.6135307E+02	  -0.6161052E+02
   0.1924364E+02	  -0.8567565E+02	  -0.4173056E+02
   0.1332573E+02	  -0.1019778E+03	  -0.1911863E+02
   0.2100178E+00	  -0.1080980E+03	   0.1360571E+01
  -0.1712607E+02	  -0.1029359E+03	   0.1592447E+02
  -0.3480781E+02	  -0.8674844E+02	   0.2263465E+02
  -0.4913110E+02	  -0.6131334E+02	   0.2158722E+02
  -0.5733358E+02	  -0.2977081E+02	   0.1456365E+02
  -0.5794740E+02	   0.3911612E+01	   0.4425373E+01
  -0.5085076E+02	   0.3579928E+02	  -0.5615767E+01
  -0.3717626E+02	   0.6286821E+02	  -0.1262134E+02
  -0.1920095E+02	   0.8357967E+02	  -0.1434030E+02
  -0.1549602E+00	   0.9785271E+02	  -0.9585151E+01
   0.1618491E+02	   0.1064654E+03	   0.1428469E+01
   0.2626911E+02	   0.1101946E+03	   0.1694324E+02
   0.2774148E+02	   0.1090977E+03	   0.3382205E+02
   0.2031157E+02	   0.1023726E+03	   0.4810504E+02
   0.6152169E+01	   0.8889774E+02	   0.5590533E+02
  -0.1047146E+02	   0.6817442E+02	   0.5450560E+02
  -0.2434899E+02	   0.4117490E+02	   0.4323260E+02
  -0.3086512E+02	   0.1061937E+02	   0.2390147E+02
  -0.2749707E+02	  -0.1952718E+02	   0.5754789E+00
  -0.1472614E+02	  -0.4510527E+02	  -0.2130463E+02
   0.3981523E+01	  -0.6293511E+02	  -0.3635347E+02
   0.2314586E+02	  -0.7168725E+02	  -0.4077542E+02
   0.3685568E+02	  -0.7209482E+02	  -0.3349353E+02
   0.4053018E+02	  -0.6638742E+02	  -0.1634297E+02
   0.3227660E+02	  -0.5717895E+02	   0.6644801E+01
   0.1352622E+02	  -0.4634503E+02	   0.3055292E+02
  -0.1120867E+02	  -0.3440902E+02	   0.5078354E+02
  -0.3542353E+02	  -0.2074001E+02	   0.6380335E+02
  -0.5233111E+02	  -0.4434129E+01	   0.6729009E+02
  -0.5673533E+02	   0.1454741E+02	   0.5991521E+02
  -0.4654071E+02	   0.3452212E+02	   0.4120436E+02
  -0.2344088E+02	   0.5198846E+02	   0.1171937E+02
   0.7458870E+01	   0.6249661E+02	  -0.2643099E+02
   0.3904555E+02	   0.6214196E+02	  -0.6906762E+02
   0.6417979E+02	   0.4911203E+02	  -0.1098423E+03
   0.7766016E+02	   0.2468168E+02	  -0.1409408E+03
   0.7753194E+02	  -0.6768641E+01	  -0.1547186E+03
   0.6535960E+02	  -0.3880025E+02	  -0.1458868E+03
   0.4539003E+02	  -0.6469101E+02	  -0.1134714E+03
   0.2296335E+02	  -0.7928443E+02	  -0.6171064E+02
   0.2749915E+01	  -0.8031468E+02	   0.6144949E+00
  -0.1253994E+02	  -0.6872723E+02	   0.6230959E+02
  -0.2255110E+02	  -0.4800029E+02	   0.1126174E+03
  -0.2873703E+02	  -0.2279253E+02	   0.1438331E+03
  -0.3323454E+02	   0.2402362E+01	   0.1528118E+03
  -0.3768811E+02	   0.2407380E+02	   0.1409639E+03
  -0.4253795E+02	   0.3983450E+02	   0.1130648E+03
  -0.4696661E+02	   0.4814236E+02	   0.7549204E+02
  -0.4943480E+02	   0.4785038E+02	   0.3461754E+02
  -0.4849578E+02	   0.3808379E+02	  -0.4201452E+01
  -0.4347837E+02	   0.1864766E+02	  -0.3692836E+02
  -0.3476910E+02	  -0.9176897E+01	  -0.6073148E+02
  -0.2362346E+02	  -0.4186848E+02	  -0.7392271E+02
  -0.1163029E+02	  -0.7347917E+02	  -0.7610620E+02
  -0.1405776E+00	  -0.9640469E+02	  -0.6830451E+02
   0.1010991E+02	  -0.1029819E+03	  -0.5290708E+02
   0.1907219E+02	  -0.8758359E+02	  -0.3332560E+02
   0.2717817E+02	  -0.4865127E+02	  -0.1333418E+02
   0.3499841E+02	   0.1007999E+02	   0.3728798E+01
   0.4292822E+02	   0.7974664E+02	   0.1557479E+02
   0.5099727E+02	   0.1478914E+03	   0.2117374E+02
   0.5882104E+02	   0.2010536E+03	   0.2070079E+02
   0.6561929E+02	   0.2278114E+03	   0.1545317E+02
   0.7025275E+02	   0.2214938E+03	   0.7785931E+01
   0.7129221E+02	   0.1817984E+03	   0.9329025E+00
   0.6718591E+02	   0.1149366E+03	  -0.1590798E+01
   0.5656424E+02	   0.3226746E+02	   0.2904905E+01
   0.3868803E+02	  -0.5212514E+02	   0.1496762E+02
   0.1396291E+02	  -0.1243093E+03	   0.3203016E+02
  -0.1568950E+02	  -0.1732661E+03	   0.4842654E+02
  -0.4681540E+02	  -0.1929493E+03	   0.5677743E+02
  -0.7490608E+02	  -0.1832312E+03	   0.5051555E+02
  -0.9540639E+02	  -0.1496157E+03	   0.2673866E+02
  -0.1049997E+03	  -0.1017752E+03	  -0.1185101E+02
  -0.1027350E+03	  -0.5124834E+02	  -0.5693608E+02
  -0.9051817E+02	  -0.8723014E+01	  -0.9681166E+02
  -0.7264667E+02	   0.1842375E+02	  -0.1201731E+03
  -0.5446143E+02	   0.2769338E+02	  -0.1200118E+03
  -0.4054275E+02	   0.2170359E+02	  -0.9606447E+02
  -0.3309576E+02	   0.7026089E+01	  -0.5480166E+02
  -0.3116738E+02	  -0.8012321E+01	  -0.7032250E+01
  -0.3107759E+02	  -0.1585349E+02	   0.3584188E+02
  -0.2792696E+02	  -0.1183893E+02	   0.6537820E+02
  -0.1761252E+02	   0.4527521E+01	   0.7817133E+02
   0.1406419E+01	   0.2945321E+02	   0.7591341E+02
   0.2729014E+02	   0.5602586E+02	   0.6378363E+02
   0.5531573E+02	   0.7637265E+02	   0.4809098E+02
   0.7948311E+02	   0.8415067E+02	   0.3418111E+02
   0.9459889E+02	   0.7664971E+02	   0.2520661E+02
   0.9805018E+02	   0.5584444E+02	   0.2189246E+02
   0.9059674E+02	   0.2794210E+02	   0.2299213E+02
   0.7591248E+02	   0.1468989E+01	   0.2593078E+02
   0.5913845E+02	  -0.1564136E+02	   0.2745088E+02
   0.4503371E+02	  -0.1891813E+02	   0.2428941E+02
   0.3643592E+02	  -0.9076214E+01	   0.1390563E+02
   0.3354386E+02	   0.7983871E+01	  -0.4693839E+01
   0.3417436E+02	   0.2300429E+02	  -0.3013817E+02
   0.3476202E+02	   0.2662263E+02	  -0.5822297E+02
   0.3168093E+02	   0.1303011E+02	  -0.8243266E+02
   0.2242884E+02	  -0.1743523E+02	  -0.9570774E+02
   0.6330199E+01	  -0.5787529E+02	  -0.9295982E+02
  -0.1534888E+02	  -0.9685638E+02	  -0.7328044E+02
  -0.3982000E+02	  -0.1222075E+03	  -0.4083682E+02
  -0.6350169E+02	  -0.1252268E+03	  -0.3913008E+01
  -0.8278260E+02	  -0.1037742E+03	   0.2772611E+02
  -0.9466197E+02	  -0.6312725E+02	   0.4619267E+02
  -0.9720261E+02	  -0.1422120E+02	   0.4825279E+02
  -0.8982799E+02	   0.3009311E+02	   0.3634927E+02
  -0.7348172E+02	   0.5942590E+02	   0.1744234E+02
  -0.5059288E+02	   0.6921518E+02	   0.1832691E+00
  -0.2475549E+02	   0.6191454E+02	  -0.8327303E+01
  -0.1052837E+00	   0.4562960E+02	  -0.4854013E+01
   0.1951279E+02	   0.3073975E+02	   0.9368834E+01
   0.3138168E+02	   0.2587882E+02	   0.2976324E+02
   0.3453832E+02	   0.3486937E+02	   0.5056163E+02
   0.2993783E+02	   0.5561922E+02	   0.6682302E+02
   0.2007400E+02	   0.8120353E+02	   0.7554189E+02
   0.8166386E+01	   0.1025073E+03	   0.7560197E+02
  -0.2775324E+01	   0.1113284E+03	   0.6700791E+02
  -0.1070153E+02	   0.1028208E+03	   0.5013691E+02
  -0.1484123E+02	   0.7660399E+02	   0.2560281E+02
  -0.1551197E+02	   0.3647427E+02	  -0.5142547E+01
  -0.1352815E+02	  -0.1094057E+02	  -0.3896917E+02
  -0.9566738E+01	  -0.5803041E+02	  -0.7077474E+02
  -0.3764450E+01	  -0.9790334E+02	  -0.9424300E+02
   0.4272516E+01	  -0.1256406E+03	  -0.1035866E+03
   0.1508792E+02	  -0.1388578E+03	  -0.9573626E+02
   0.2884016E+02	  -0.1377175E+03	  -0.7198360E+02
   0.4484681E+02	  -0.1244705E+03	  -0.3814521E+02
   0.6140618E+02	  -0.1027366E+03	  -0.3013428E+01
   0.7595288E+02	  -0.7665891E+02	   0.2439069E+02
   0.8553640E+02	  -0.5004335E+02	   0.3777311E+02
   0.8747806E+02	  -0.2561186E+02	   0.3558081E+02
   0.8000854E+02	  -0.4614987E+01	   0.2126566E+02
   0.6268225E+02	   0.1304908E+02	   0.1748176E+01
   0.3649662E+02	   0.2824223E+02	  -0.1522595E+02
   0.3733191E+01	   0.4184023E+02	  -0.2379467E+02
  -0.3232740E+02	   0.5416909E+02	  -0.2183280E+02
  -0.6774324E+02	   0.6471535E+02	  -0.1138045E+02
  -0.9828615E+02	   0.7219409E+02	   0.2428630E+01
  -0.1199150E+03	   0.7506365E+02	   0.1357937E+02
  -0.1293914E+03	   0.7231186E+02	   0.1761911E+02
  -0.1249267E+03	   0.6412798E+02	   0.1343214E+02
  -0.1067275E+03	   0.5210275E+02	   0.3697774E+01
  -0.7722457E+02	   0.3882370E+02	  -0.6100150E+01
  -0.4081699E+02	   0.2693919E+02	  -0.9778577E+01
  -0.3112087E+01	   0.1814693E+02	  -0.2910710E+01
   0.3019681E+02	   0.1266098E+02	   0.1526307E+02
   0.5454235E+02	   0.9379164E+01	   0.4119387E+02
   0.6745111E+02	   0.6697925E+01	   0.6793436E+02
   0.6897649E+02	   0.3519373E+01	   0.8727695E+02
   0.6145686E+02	  -0.1231514E+00	   0.9231873E+02
   0.4869150E+02	  -0.3157673E+01	   0.7966319E+02
   0.3482487E+02	  -0.4286835E+01	   0.5054151E+02
   0.2329097E+02	  -0.3128156E+01	   0.1047917E+02
   0.1610050E+02	  -0.1062929E+01	  -0.3227822E+02
   0.1360058E+02	  -0.1246636E+01	  -0.6903623E+02
   0.1472549E+02	  -0.7509614E+01	  -0.9283348E+02
   0.1757771E+02	  -0.2253045E+02	  -0.9996395E+02
   0.2010182E+02	  -0.4601421E+02	  -0.9049732E+02
   0.2067425E+02	  -0.7373323E+02	  -0.6782471E+02
   0.1850643E+02	  -0.9806332E+02	  -0.3756227E+02
   0.1376803E+02	  -0.1101021E+03	  -0.6234758E+01
   0.7536399E+01	  -0.1027935E+03	   0.2000611E+02
   0.1483046E+01	  -0.7388158E+02	   0.3643777E+02
  -0.2598216E+01	  -0.2748532E+02	   0.4045114E+02
  -0.3414835E+01	   0.2640166E+02	   0.3196185E+02
  -0.7911421E+00	   0.7448775E+02	   0.1348880E+02
   0.3896653E+01	   0.1040322E+03	  -0.1026012E+02
   0.7716002E+01	   0.1066568E+03	  -0.3335872E+02
   0.6800976E+01	   0.8084618E+02	  -0.4995898E+02
  -0.2418120E+01	   0.3239729E+02	  -0.5569274E+02
  -0.2174083E+02	  -0.2716118E+02	  -0.4884647E+02
  -0.5000471E+02	  -0.8358244E+02	  -0.3087110E+02
  -0.8269390E+02	  -0.1234844E+03	  -0.6000068E+01
  -0.1126834E+03	  -0.1375255E+03	   0.1998241E+02
  -0.1319765E+03	  -0.1224309E+03	   0.4143526E+02
  -0.1339679E+03	  -0.8146902E+02	   0.5444236E+02
  -0.1154771E+03	  -0.2334534E+02	   0.5771191E+02
  -0.7787701E+02	   0.4016058E+02	   0.5256102E+02
  -0.2689300E+02	   0.9710801E+02	   0.4206400E+02
   0.2888509E+02	   0.1380529E+03	   0.2979403E+02
   0.8024281E+02	   0.1578960E+03	   0.1869272E+02
   0.1196165E+03	   0.1565826E+03	   0.1042697E+02
   0.1427066E+03	   0.1385414E+03	   0.5309250E+01
   0.1489915E+03	   0.1110176E+03	   0.2663632E+01
   0.1411464E+03	   0.8181642E+02	   0.1418311E+01
   0.1236927E+03	   0.5710770E+02	   0.6455904E+00
   0.1014700E+03	   0.3985260E+02	  -0.2188606E+00
   0.7844126E+02	   0.2925817E+02	  -0.1485466E+01
   0.5710149E+02	   0.2138145E+02	  -0.3468604E+01
   0.3847537E+02	   0.1064094E+02	  -0.6645196E+01
   0.2247084E+02	  -0.8163001E+01	  -0.1150418E+02
   0.8337865E+01	  -0.3785845E+02	  -0.1816691E+02
  -0.5017553E+01	  -0.7751587E+02	  -0.2598215E+02
  -0.1885880E+02	  -0.1220882E+03	  -0.3335013E+02
  -0.3443762E+02	  -0.1632923E+03	  -0.3795922E+02
  -0.5266186E+02	  -0.1916132E+03	  -0.3739532E+02
  -0.7360917E+02	  -0.1988470E+03	  -0.2991228E+02
  -0.9606802E+02	  -0.1804039E+03	  -0.1506214E+02
  -0.1173994E+03	  -0.1366920E+03	   0.5979784E+01
  -0.1339048E+03	  -0.7326546E+02	   0.3045309E+02
  -0.1416766E+03	   0.2461651E+00	   0.5441280E+02
  -0.1377114E+03	   0.7217369E+02	   0.7340221E+02
  -0.1209337E+03	   0.1313087E+03	   0.8335287E+02
  -0.9271819E+02	   0.1692372E+03	   0.8155157E+02
  -0.5672438E+02	   0.1819377E+03	   0.6744574E+02
  -0.1807142E+02	   0.1702838E+03	   0.4297694E+02
   0.1788423E+02	   0.1393466E+03	   0.1222172E+02
   0.4680244E+02	   0.9676248E+02	  -0.1958100E+02
   0.6627422E+02	   0.5071666E+02	  -0.4739507E+02
   0.7615557E+02	   0.8159497E+01	  -0.6769567E+02
   0.7830568E+02	  -0.2632256E+02	  -0.7923865E+02
   0.7583824E+02	  -0.5081334E+02	  -0.8296552E+02
   0.7213837E+02	  -0.6565435E+02	  -0.8114471E+02
   0.6993460E+02	  -0.7255596E+02	  -0.7610640E+02
   0.7065805E+02	  -0.7357150E+02	  -0.6915997E+02
   0.7423515E+02	  -0.7027884E+02	  -0.6017103E+02
   0.7929958E+02	  -0.6345478E+02	  -0.4802036E+02
   0.8373367E+02	  -0.5342160E+02	  -0.3170819E+02
   0.8530385E+02	  -0.4084151E+02	  -0.1145771E+02
   0.8220225E+02	  -0.2740311E+02	   0.1075186E+02
   0.7333244E+02	  -0.1586813E+02	   0.3149961E+02
   0.5831959E+02	  -0.9317844E+01	   0.4698394E+02
   0.3737319E+02	  -0.9883192E+01	   0.5437189E+02
   0.1116294E+02	  -0.1749922E+02	   0.5289680E+02
  -0.1915764E+02	  -0.2934629E+02	   0.4423805E+02
  -0.5178746E+02	  -0.4039382E+02	   0.3200672E+02
  -0.8412363E+02	  -0.4491247E+02	   0.2054332E+02
  -0.1128139E+03	  -0.3840134E+02	   0.1352490E+02
  -0.1341667E+03	  -0.1920178E+02	   0.1290821E+02
  -0.1449223E+03	   0.1084473E+02	   0.1849059E+02
  -0.1431763E+03	   0.4693634E+02	   0.2820465E+02
  -0.1291020E+03	   0.8279735E+02	   0.3892749E+02
  -0.1051430E+03	   0.1124503E+03	   0.4743327E+02
  -0.7545966E+02	   0.1315665E+03	   0.5117569E+02
  -0.4476842E+02	   0.1379996E+03	   0.4865182E+02
  -0.1697798E+02	   0.1315725E+03	   0.3941995E+02
   0.5852293E+01	   0.1135301E+03	   0.2393385E+02
   0.2380932E+02	   0.8605222E+02	   0.3413286E+01
   0.3859049E+02	   0.5194156E+02	  -0.2023218E+02
   0.5239761E+02	   0.1439724E+02	  -0.4456089E+02
   0.6672161E+02	  -0.2318726E+02	  -0.6690401E+02
   0.8150315E+02	  -0.5743169E+02	  -0.8469550E+02
   0.9498490E+02	  -0.8527531E+02	  -0.9566636E+02
   0.1042540E+03	  -0.1043602E+03	  -0.9787551E+02
   0.1062461E+03	  -0.1133467E+03	  -0.8971917E+02
   0.9885674E+02	  -0.1120150E+03	  -0.7011122E+02
   0.8177481E+02	  -0.1010652E+03	  -0.3896090E+02
   0.5680564E+02	  -0.8183810E+02	   0.2051691E+01
   0.2760131E+02	  -0.5619884E+02	   0.4871808E+02
  -0.1091968E+01	  -0.2671933E+02	   0.9413077E+02
  -0.2449194E+02	   0.2969321E+01	   0.1295883E+03
  -0.3888951E+02	   0.2808627E+02	   0.1466432E+03
  -0.4259246E+02	   0.4325471E+02	   0.1397771E+03
  -0.3649788E+02	   0.4387427E+02	   0.1087613E+03
  -0.2410319E+02	   0.2798921E+02	   0.5959044E+02
  -0.1084319E+02	  -0.2198440E+01	   0.3273695E+01
  -0.2789012E+01	  -0.4004688E+02	  -0.4731536E+02
  -0.4929895E+01	  -0.7585247E+02	  -0.8147495E+02
  -0.1950007E+02	  -0.9954053E+02	  -0.9407915E+02
  -0.4492081E+02	  -0.1037205E+03	  -0.8699296E+02
  -0.7581844E+02	  -0.8593107E+02	  -0.6793034E+02
  -0.1042196E+03	  -0.4916816E+02	  -0.4724551E+02
  -0.1216314E+03	  -0.5559050E+00	  -0.3398186E+02
  -0.1214232E+03	   0.5118067E+02	  -0.3272599E+02
  -0.1007546E+03	   0.9833733E+02	  -0.4243692E+02
  -0.6147496E+02	   0.1359003E+03	  -0.5750004E+02
  -0.9688538E+01	   0.1617590E+03	  -0.7029043E+02
   0.4583348E+02	   0.1756575E+03	  -0.7409161E+02
   0.9588899E+02	   0.1776570E+03	  -0.6526019E+02
   0.1330337E+03	   0.1670816E+03	  -0.4386369E+02
   0.1530685E+03	   0.1425819E+03	  -0.1295200E+02
   0.1554477E+03	   0.1033302E+03	   0.2291203E+02
   0.1426071E+03	   0.5070445E+02	   0.5903633E+02
   0.1185768E+03	  -0.1046943E+02	   0.9133863E+02
   0.8746270E+02	  -0.7190868E+02	   0.1164615E+03
   0.5238403E+02	  -0.1233689E+03	   0.1316034E+03
   0.1518052E+02	  -0.1552449E+03	   0.1345874E+03
  -0.2312813E+02	  -0.1614627E+03	   0.1242857E+03
  -0.6145784E+02	  -0.1416214E+03	   0.1011978E+03
  -0.9782491E+02	  -0.1015108E+03	   0.6780884E+02
  -0.1289758E+03	  -0.5168665E+02	   0.2846946E+02
  -0.1507022E+03	  -0.4571814E+01	  -0.1132557E+02
  -0.1587656E+03	   0.2898712E+02	  -0.4612169E+02
  -0.1500952E+03	   0.4252848E+02	  -0.7176070E+02
  -0.1238443E+03	   0.3531548E+02	  -0.8619311E+02
  -0.8197955E+02	   0.1193208E+02	  -0.8957882E+02
  -0.2925862E+02	  -0.1961926E+02	  -0.8373346E+02
   0.2738805E+02	  -0.5056351E+02	  -0.7123399E+02
   0.7992725E+02	  -0.7387888E+02	  -0.5460762E+02
   0.1205368E+03	  -0.8586922E+02	  -0.3590689E+02
   0.1429532E+03	  -0.8638017E+02	  -0.1672615E+02
   0.1436170E+03	  -0.7780894E+02	   0.1444619E+01
   0.1224118E+03	  -0.6339804E+02	   0.1688719E+02
   0.8285396E+02	  -0.4564444E+02	   0.2761523E+02
   0.3163478E+02	  -0.2552208E+02	   0.3172697E+02
  -0.2242926E+02	  -0.2747607E+01	   0.2807620E+02
  -0.6989932E+02	   0.2315321E+02	   0.1700723E+02
  -0.1024358E+03	   0.5170360E+02	   0.8098039E+00
  -0.1143951E+03	   0.8092874E+02	  -0.1641868E+02
  -0.1039276E+03	   0.1076589E+03	  -0.2963419E+02
  -0.7325072E+02	   0.1284895E+03	  -0.3421030E+02
  -0.2799164E+02	   0.1408400E+03	  -0.2742389E+02
   0.2420298E+02	   0.1435475E+03	  -0.9549869E+01
   0.7537582E+02	   0.1366813E+03	   0.1588841E+02
   0.1187347E+03	   0.1207964E+03	   0.4291029E+02
   0.1494791E+03	   0.9615990E+02	   0.6471333E+02
   0.1648644E+03	   0.6256936E+02	   0.7563458E+02
   0.1637474E+03	   0.2001188E+02	   0.7279378E+02
   0.1460245E+03	  -0.3009405E+02	   0.5693270E+02
   0.1123510E+03	  -0.8376944E+02	   0.3216135E+02
   0.6428120E+02	  -0.1342705E+03	   0.4714932E+01
   0.4667858E+01	  -0.1731998E+03	  -0.1884672E+02
  -0.6199291E+02	  -0.1926880E+03	  -0.3344230E+02
  -0.1295900E+03	  -0.1878515E+03	  -0.3676944E+02
  -0.1909449E+03	  -0.1585393E+03	  -0.2979848E+02
  -0.2388303E+03	  -0.1096259E+03	  -0.1635801E+02
  -0.2671865E+03	  -0.4970079E+02	  -0.1951082E+01
  -0.2721645E+03	   0.1133737E+02	   0.7850213E+01
  -0.2526847E+03	   0.6486349E+02	   0.9006079E+01
  -0.2103982E+03	   0.1053408E+03	   0.1606232E+00
  -0.1491738E+03	   0.1308536E+03	  -0.1696917E+02
  -0.7438086E+02	   0.1423827E+03	  -0.3812056E+02
   0.7759485E+01	   0.1422843E+03	  -0.5780926E+02
   0.9061330E+02	   0.1327361E+03	  -0.7098695E+02
   0.1674118E+03	   0.1148560E+03	  -0.7442162E+02
   0.2315572E+03	   0.8879068E+02	  -0.6737962E+02
   0.2771484E+03	   0.5455709E+02	  -0.5150077E+02
   0.2997513E+03	   0.1313715E+02	  -0.3011181E+02
   0.2972171E+03	  -0.3279892E+02	  -0.7280640E+01
   0.2702155E+03	  -0.7893849E+02	   0.1309466E+02
   0.2221824E+03	  -0.1201181E+03	   0.2796864E+02
   0.1586260E+03	  -0.1515225E+03	   0.3562804E+02
   0.8600445E+02	  -0.1697622E+03	   0.3601514E+02
   0.1058660E+02	  -0.1733575E+03	   0.3082041E+02
  -0.6230123E+02	  -0.1625123E+03	   0.2320540E+02
  -0.1284505E+03	  -0.1384711E+03	   0.1711482E+02
  -0.1844807E+03	  -0.1028720E+03	   0.1624502E+02
  -0.2273865E+03	  -0.5744000E+02	   0.2283252E+02
  -0.2542739E+03	  -0.4177189E+01	   0.3664507E+02
  -0.2624969E+03	   0.5410556E+02	   0.5461461E+02
  -0.2502299E+03	   0.1132421E+03	   0.7139786E+02
  -0.2172417E+03	   0.1675215E+03	   0.8084501E+02
  -0.1655416E+03	   0.2100943E+03	   0.7801104E+02
  -0.9957914E+02	   0.2340135E+03	   0.6104797E+02
  -0.2583900E+02	   0.2336809E+03	   0.3223499E+02
   0.4811900E+02	   0.2063563E+03	  -0.2326712E+01
   0.1149112E+03	   0.1533880E+03	  -0.3435705E+02
   0.1684945E+03	   0.8078141E+02	  -0.5589044E+02
   0.2049131E+03	  -0.1292501E+01	  -0.6183081E+02
   0.2224499E+03	  -0.8018452E+02	  -0.5166003E+02
   0.2212686E+03	  -0.1433881E+03	  -0.2969094E+02
   0.2028344E+03	  -0.1814325E+03	  -0.3740706E+01
   0.1694327E+03	  -0.1902021E+03	   0.1735998E+02
   0.1239772E+03	  -0.1719061E+03	   0.2656399E+02
   0.7007455E+02	  -0.1343478E+03	   0.2075040E+02
   0.1214170E+02	  -0.8863302E+02	   0.1544047E+01
  -0.4470063E+02	  -0.4593936E+02	  -0.2539427E+02
  -0.9510625E+02	  -0.1433065E+02	  -0.5232354E+02
  -0.1343050E+03	   0.3269103E+01	  -0.7188182E+02
  -0.1589895E+03	   0.9250232E+01	  -0.7920142E+02
  -0.1679635E+03	   0.9620420E+01	  -0.7307884E+02
  -0.1623072E+03	   0.1112662E+02	  -0.5594435E+02
  -0.1450000E+03	   0.1840398E+02	  -0.3275701E+02
  -0.1201027E+03	   0.3228794E+02	  -0.9267746E+01
  -0.9175237E+02	   0.4984984E+02	   0.9781420E+01
  -0.6327307E+02	   0.6598424E+02	   0.2187828E+02
  -0.3665462E+02	   0.7570869E+02	   0.2697551E+02
  -0.1251942E+02	   0.7606680E+02	   0.2679050E+02
   0.9492519E+01	   0.6690250E+02	   0.2364054E+02
   0.3014035E+02	   0.5037828E+02	   0.1940754E+02
   0.5004492E+02	   0.2971078E+02	   0.1504467E+02
   0.6937038E+02	   0.7876665E+01	   0.1069534E+02
   0.8772175E+02	  -0.1309180E+02	   0.6207555E+01
   0.1041823E+03	  -0.3197398E+02	   0.1693726E+01
   0.1173805E+03	  -0.4772676E+02	  -0.2148584E+01
   0.1255637E+03	  -0.5891574E+02	  -0.4102572E+01
   0.1267514E+03	  -0.6364703E+02	  -0.2880125E+01
   0.1190862E+03	  -0.6009692E+02	   0.2253645E+01
   0.1013927E+03	  -0.4737577E+02	   0.1096552E+02
   0.7381231E+02	  -0.2629854E+02	   0.2172509E+02
   0.3826330E+02	   0.3298354E+00	   0.3216014E+02
  -0.1559084E+01	   0.2808503E+02	   0.3978048E+02
  -0.4078704E+02	   0.5183419E+02	   0.4280860E+02
  -0.7444671E+02	   0.6685066E+02	   0.4076646E+02
  -0.9865072E+02	   0.6980800E+02	   0.3459054E+02
  -0.1114726E+03	   0.5948871E+02	   0.2623697E+02
  -0.1131819E+03	   0.3707845E+02	   0.1791424E+02
  -0.1057931E+03	   0.5984696E+01	   0.1121251E+02
  -0.9213127E+02	  -0.2873064E+02	   0.6523600E+01
  -0.7480605E+02	  -0.6113118E+02	   0.3025078E+01
  -0.5550553E+02	  -0.8532710E+02	  -0.7482929E+00
  -0.3488995E+02	  -0.9650106E+02	  -0.5969649E+01
  -0.1308441E+02	  -0.9191672E+02	  -0.1269506E+02
   0.9510174E+01	  -0.7171970E+02	  -0.1961882E+02
   0.3153255E+02	  -0.3923610E+02	  -0.2457127E+02
   0.5049374E+02	  -0.4538599E+00	  -0.2556894E+02
   0.6328511E+02	   0.3732919E+02	  -0.2192950E+02
   0.6719949E+02	   0.6733652E+02	  -0.1486847E+02
   0.6104863E+02	   0.8501540E+02	  -0.7289540E+01
   0.4589267E+02	   0.8898828E+02	  -0.2807077E+01
   0.2500600E+02	   0.8099136E+02	  -0.4356006E+01
   0.3026122E+01	   0.6493770E+02	  -0.1297288E+02
  -0.1540650E+02	   0.4549071E+02	  -0.2719717E+02
  -0.2699454E+02	   0.2668691E+02	  -0.4332355E+02
  -0.3061493E+02	   0.1104195E+02	  -0.5648290E+02
